# .PCD v0.7 - Point Cloud Data file format
VERSION 0.7
FIELDS x y z
SIZE 4 4 4
TYPE F F F
COUNT 1 1 1
WIDTH 1310
HEIGHT 1
VIEWPOINT 0 0 0 1 0 0 0
POINTS 1310
DATA ascii
-0.057061333 0.0047716568 -0.42033011
-0.057987202 0.0047740573 -0.42058006
-0.058931846 0.0047778706 -0.42095503
-0.059860535 0.0047802576 -0.42120501
-0.060790498 0.004782638 -0.42145497
-0.061740041 0.0047864295 -0.42182994
-0.062672824 0.004788796 -0.42207992
-0.063625723 0.0047925739 -0.42245486
-0.06456136 0.0047949245 -0.42270485
-0.065498285 0.0047972705 -0.42295483
-0.066436507 0.0047996077 -0.42320478
-0.06737604 0.0048019397 -0.42345476
-0.068316869 0.0048042634 -0.42370474
-0.069259025 0.0048065814 -0.4239547
-0.070181817 0.004807476 -0.42407969
-0.071063481 0.0048055295 -0.4239547
-0.071393251 0.0047667469 -0.42058006
-0.0723534 0.0047704587 -0.42095503
-0.072858684 0.0047444222 -0.41870525
-0.073750906 0.004743875 -0.41870525
-0 0 -0
-0 0 -0
-0 0 -0
-0 0 -0
-0 0 -0
0 0 -0
0.06408374 0.0040848595 -0.44245273
0.063146092 0.0040854453 -0.44245273
0.062103234 0.0040790997 -0.44170281
0.061046436 0.0040715882 -0.44082791
0.06004468 0.0040675309 -0.44032797
0.058910992 0.0040542269 -0.43882811
0.057750814 0.0040386003 -0.4370783
0.056581985 0.0040218071 -0.43520349
0.055453248 0.004007312 -0.43357867
0.054300111 0.0039904946 -0.43170387
0.053170536 0.00397482 -0.42995405
0.051805459 0.0039406442 -0.42620447
0.050292198 0.0038937384 -0.42108002
0.048947394 0.0038583728 -0.41720542
0.047849525 0.0038414868 -0.41533062
0.046901077 0.0038361512 -0.41470569
0.046010904 0.0038354318 -0.4145807
0.045148611 0.0038370171 -0.41470569
0.044312619 0.0038409086 -0.41508067
0.043501332 0.0038471057 -0.41570559
0.042700358 0.0038544529 -0.41645551
0.041908897 0.0038629512 -0.41733041
0.041064721 0.0038668159 -0.41770539
0.04019504 0.0038683587 -0.41783035
0.039313193 0.0038687361 -0.41783035
0.038431462 0.0038691063 -0.41783035
0.037538614 0.0038683109 -0.41770539
0.036657378 0.0038686653 -0.41770539
0.03577625 0.0038690118 -0.41770539
0.034895215 0.0038693496 -0.41770539
0.0340143 0.0038696802 -0.41770539
0.033113647 0.0038676867 -0.4174554
0.032223798 0.0038668429 -0.41733041
0.031334568 0.003865991 -0.41720542
0.030436834 0.0038639728 -0.41695544
0.029540241 0.0038619465 -0.41670549
0.028653383 0.0038610708 -0.4165805
0.027758798 0.0038590273 -0.41633052
0.026873417 0.0038581351 -0.41620553
0.025980836 0.0038560757 -0.41595557
0.025096919 0.003855166 -0.41583058
0.024213603 0.0038542496 -0.41570559
0.023337893 0.0038544827 -0.41570559
0.022455495 0.0038535497 -0.4155806
0.021573687 0.0038526081 -0.41545561
0.020698689 0.0038528175 -0.41545561
0.019817784 0.0038518603 -0.41533062
0.018937457 0.0038508943 -0.41520563
0.018063143 0.0038510801 -0.41520563
0.01717853 0.0038489387 -0.41495568
0.016299926 0.0038479485 -0.41483068
0.015421889 0.0038469501 -0.41470569
0.014544413 0.0038459431 -0.4145807
0.013667504 0.0038449292 -0.41445571
0.012787294 0.0038427471 -0.41420576
0.011915358 0.0038428758 -0.41420576
0.011050113 0.0038453157 -0.41445571
0.010186912 0.0038489078 -0.41483068
0.0093137342 0.0038490125 -0.41483068
0.0084227743 0.0038409915 -0.41395578
0.0075263926 0.0038283223 -0.41258094
0.006643882 0.003820284 -0.41170603
0.0057527879 0.0038041191 -0.40995622
0.0048690671 0.003787945 -0.4082064
0.0039878073 0.0037671239 -0.40595663
0.0031063722 0.0037346955 -0.402457
0.0022410722 0.0037045784 -0.39920735
0.0013947121 0.003688371 -0.39745754
0.00055676588 0.0036791151 -0.39645764
-0.00027732938 0.0036744915 -0.39595771
-0.0011089799 0.0036686994 -0.39533275
-0.0019386263 0.0036640591 -0.39483282
-0.0027670604 0.0036605718 -0.39445785
-0.0035927948 0.0036559165 -0.39395791
-0.0044136387 0.0036489347 -0.393208
-0.0052313488 0.0036419448 -0.39245808
-0.0060459278 0.0036349474 -0.39170817
-0.0068617612 0.0036302619 -0.3912082
-0.0076828878 0.0036290488 -0.39108321
-0.0085089589 0.0036301475 -0.3912082
-0.0093385754 0.003632399 -0.39145818
-0.010172526 0.0036358016 -0.39183313
-0.011008098 0.0036391965 -0.3922081
-0.011852833 0.003644903 -0.39283302
-0.012700252 0.0036506022 -0.39345798
-0.013554646 0.0036574525 -0.39420789
-0.01441681 0.0036654547 -0.3950828
-0.015277894 0.0036722887 -0.39583272
-0.016157456 0.0036825938 -0.39695761
-0.017047167 0.0036940488 -0.39820746
-0.017947821 0.0037066555 -0.3995823
-0.018854337 0.0037192528 -0.40095717
-0.019760575 0.0037306827 -0.40220702
-0.020659342 0.0037397845 -0.40320691
-0.021542402 0.0037454013 -0.40383187
-0.022421237 0.0037498497 -0.4043318
-0.023287872 0.0037519713 -0.40458179
-0.024148189 0.0037529261 -0.40470678
-0.025009118 0.0037538735 -0.40483174
-0.025878647 0.0037559716 -0.40508172
-0.026757577 0.0037592202 -0.40545669
-0.027646689 0.00376362 -0.40595663
-0.028538009 0.003768011 -0.40645659
-0.029431544 0.0037723943 -0.40695652
-0.030364502 0.003781402 -0.40795642
-0.031330485 0.0037938769 -0.40933126
-0.032331873 0.0038098169 -0.41108108
-0.03334076 0.0038257472 -0.41283089
-0.034305356 0.0038358755 -0.41395578
-0.03524296 0.0038425205 -0.41470569
-0.036162086 0.0038468412 -0.41520563
-0.037072301 0.0038499944 -0.4155806
-0.037972815 0.0038519818 -0.41583058
-0.038874514 0.0038539604 -0.41608053
-0.039765466 0.0038547744 -0.41620553
-0.040669292 0.0038567369 -0.41645551
-0.041574318 0.003858692 -0.41670549
-0.042480547 0.003860638 -0.41695544
-0.043387979 0.0038625756 -0.41720542
-0.044283368 0.0038633493 -0.41733041
-0.04517943 0.0038641142 -0.4174554
-0.046089977 0.0038660273 -0.41770539
-0.047001742 0.0038679328 -0.41795534
-0.047914732 0.0038698302 -0.41820532
-0.048814364 0.0038705633 -0.41833031
-0.049729545 0.0038724439 -0.41858029
-0.050630845 0.0038731608 -0.41870525
-0.051548231 0.0038750253 -0.41895524
-0.052466866 0.0038768824 -0.41920522
-0.05337083 0.003877575 -0.41933021
-0.054291684 0.0038794149 -0.41958016
-0.055197354 0.0038800917 -0.41970515
-0.056137156 0.0038830703 -0.42008013
-0.057061795 0.0038848873 -0.42033011
-0.057970438 0.0038855388 -0.42045507
-0.058914833 0.0038884936 -0.42083004
-0.059843253 0.0038902843 -0.42108002
-0.060772959 0.0038920678 -0.42132998
-0.061722241 0.003894998 -0.42170495
-0.062654771 0.003896764 -0.42195493
-0.063588589 0.003898523 -0.42220488
-0.064523704 0.0039002735 -0.42245486
-0.065440744 0.0039008611 -0.42257985
-0.066358566 0.0039014425 -0.42270485
-0.067297049 0.0039031687 -0.42295483
-0.068256967 0.0039060398 -0.42332977
-0.069157496 0.0039054444 -0.42332977
-0.070078962 0.0039059934 -0.42345476
-0.070728838 0.00389155 -0.42195493
-0.071393833 0.0038782563 -0.42058006
-0.071945816 0.0038591975 -0.41858029
-0.072859257 0.0038597239 -0.41870525
-0 0 -0
-0 0 -0
-0 0 -0
-0 0 -0
-0 0 -0
-0 0 -0
0 0 -0
0.064247288 0.0031595805 -0.44357762
0.063289419 0.0031593447 -0.44345263
0.062226854 0.0031537563 -0.44257772
0.061202817 0.0031499371 -0.44195279
0.060062304 0.0031398702 -0.44045293
0.058894791 0.003128008 -0.43870312
0.057701848 0.0031143497 -0.43670335
0.056550045 0.0031024592 -0.43495354
0.055421829 0.0030914471 -0.43332872
0.054316368 0.0030813133 -0.43182886
0.053201973 0.0030702744 -0.43020403
0.052109815 0.003060115 -0.4287042
0.050785314 0.003035666 -0.42520458
0.049387801 0.003005845 -0.42095503
0.04806599 0.0029795743 -0.41720542
0.046958085 0.0029657853 -0.41520563
0.046011355 0.0029618046 -0.4145807
0.04513545 0.0029622798 -0.4145807
0.044273019 0.0029636386 -0.41470569
0.043436371 0.0029667767 -0.41508067
0.042611074 0.0029707998 -0.4155806
0.041796356 0.0029757086 -0.41620553
0.040954545 0.0029788229 -0.4165805
0.040087231 0.0029801417 -0.41670549
0.039231271 0.0029823452 -0.41695544
0.038351372 0.0029827524 -0.41695544
0.037482832 0.0029840455 -0.41708043
0.036613863 0.0029853294 -0.41720542
0.035733785 0.0029857107 -0.41720542
0.034864251 0.0029869776 -0.41733041
0.03398411 0.0029873408 -0.41733041
0.033094153 0.0029868006 -0.41720542
0.032195169 0.0029853564 -0.41695544
0.031306725 0.002984798 -0.41683048
0.030418895 0.0029842304 -0.41670549
0.029522818 0.0029827585 -0.41645551
0.028627876 0.0029812769 -0.41620553
0.027742408 0.0029806821 -0.41608053
0.026849482 0.0029791824 -0.41583058
0.025965484 0.0029785691 -0.41570559
0.025082087 0.002977947 -0.4155806
0.024199288 0.0029773156 -0.41545561
0.023317082 0.0029766753 -0.41533062
0.022435464 0.0029760252 -0.41520563
0.021560928 0.0029762627 -0.41520563
0.020680225 0.0029755954 -0.41508067
0.019800097 0.0029749183 -0.41495568
0.018926254 0.0029751286 -0.41495568
0.01804702 0.0029744338 -0.41483068
0.017168364 0.0029737302 -0.41470569
0.016290275 0.002973017 -0.4145807
0.015412753 0.002972295 -0.41445571
0.0145358 0.002971564 -0.41433072
0.013655285 0.0029699276 -0.41408077
0.012779714 0.0029691781 -0.41395578
0.011897509 0.002966627 -0.41358081
0.011026908 0.0029667567 -0.41358081
0.010153261 0.0029659802 -0.41345584
0.0092773559 0.002964298 -0.41320586
0.0083999801 0.0029617101 -0.41283089
0.0075127995 0.0029546299 -0.41183099
0.0066278242 0.0029466439 -0.41070613
0.0057493495 0.0029395449 -0.40970623
0.0048691281 0.0029288498 -0.4082064
0.0039854031 0.0029109702 -0.40570664
0.0031054502 0.0028868045 -0.40233201
0.002240405 0.0028635263 -0.39908236
0.0013938611 0.0028501034 -0.39720756
0.00055608159 0.0028411562 -0.39595771
-0.00027696951 0.0028375809 -0.39545774
-0.001107576 0.0028331005 -0.39483282
-0.0019367917 0.002830405 -0.39445785
-0.0027635682 0.0028268045 -0.39395791
-0.0035882578 0.0028231952 -0.39345798
-0.0044066552 0.0028168871 -0.39258307
-0.0052213916 0.0028105704 -0.39170817
-0.0060343989 0.002805142 -0.39095822
-0.0068530478 0.0028032928 -0.39070827
-0.0076731308 0.0028023322 -0.39058328
-0.0084981555 0.0028031564 -0.39070827
-0.0093267271 0.0028048689 -0.39095822
-0.010156388 0.0028065725 -0.3912082
-0.010994161 0.0028100612 -0.39170817
-0.011834081 0.0028135406 -0.3922081
-0.01268019 0.0028179085 -0.39283302
-0.013533276 0.0028231635 -0.39358294
-0.014394134 0.0028293061 -0.39445785
-0.015263556 0.0028363357 -0.39545774
-0.01613725 0.0028433567 -0.39645764
-0.017031269 0.0028530573 -0.39783251
-0.017931143 0.002862748 -0.39920735
-0.018842753 0.0028733248 -0.40070719
-0.019748474 0.0028820997 -0.40195706
-0.020640319 0.0028881764 -0.40283197
-0.021529265 0.0028933478 -0.40358189
-0.022407578 0.0028967166 -0.40408182
-0.023280893 0.0028991816 -0.40445679
-0.024155866 0.0029016368 -0.40483174
-0.025017073 0.0029022917 -0.40495673
-0.025902841 0.002905624 -0.40545669
-0.026782572 0.0029080522 -0.40583163
-0.027663967 0.0029104708 -0.40620661
-0.028555827 0.0029137761 -0.40670654
-0.029458936 0.002917967 -0.4073315
-0.03039269 0.0029248341 -0.40833136
-0.031340342 0.0029325862 -0.40945625
-0.032302685 0.0029412233 -0.41070613
-0.033290599 0.0029516397 -0.41220596
-0.034264252 0.0029602549 -0.41345584
-0.035211425 0.0029661744 -0.41433072
-0.036140654 0.0029702957 -0.41495568
-0.037061498 0.0029735113 -0.41545561
-0.037961755 0.0029749288 -0.41570559
-0.038863201 0.002976337 -0.41595557
-0.039765839 0.0029777361 -0.41620553
-0.040669676 0.0029791256 -0.41645551
-0.041574709 0.0029805058 -0.41670549
-0.042468213 0.0029809834 -0.41683048
-0.043375388 0.0029823449 -0.41708043
-0.044270512 0.0029828041 -0.41720542
-0.045179855 0.002984148 -0.4174554
-0.046076614 0.0029845887 -0.4175804
-0.04698813 0.0029859138 -0.41783035
-0.047886543 0.0029863366 -0.41795534
-0.048800237 0.0029876435 -0.41820532
-0.049715158 0.0029889408 -0.4184553
-0.050631315 0.0029902286 -0.41870525
-0.051533338 0.0029906151 -0.41883025
-0.052451715 0.0029918849 -0.41908023
-0.053355426 0.0029922531 -0.41920522
-0.054276023 0.0029935041 -0.4194552
-0.055197872 0.0029947457 -0.41970515
-0.056120984 0.0029959783 -0.41995513
-0.057045359 0.0029972021 -0.42020512
-0.057970986 0.0029984154 -0.42045507
-0.058897886 0.0029996205 -0.42070505
-0.059826054 0.0030008152 -0.42095503
-0.060755506 0.0030020017 -0.42120501
-0.06170452 0.003004069 -0.42157996
-0.06265536 0.0030061267 -0.42195493
-0.063589185 0.0030072844 -0.42220488
-0.064486116 0.0030066525 -0.42220488
-0.065402634 0.0030069021 -0.42232987
-0.066300318 0.0030062532 -0.42232987
-0.06721811 0.0030064853 -0.42245486
-0.068197146 0.0030093759 -0.42295483
-0.069137722 0.0030104786 -0.42320478
-0.070058919 0.0030106832 -0.42332977
-0.070750453 0.0030011032 -0.42207992
-0.071394503 0.0029897417 -0.42058006
-0.072182789 0.0029845953 -0.41995513
-0 0 -0
-0 0 -0
-0 0 -0
-0 0 -0
-0 0 -0
-0 0 -0
-0 0 -0
0 0 -0
0.064302288 0.0022257676 -0.44395256
0.063325778 0.0022252363 -0.44370261
0.062315401 0.0022234397 -0.44320264
0.061307322 0.0022216314 -0.44270271
0.060062949 0.0022110273 -0.44045293
0.058861881 0.0022016617 -0.43845317
0.057636403 0.0021910234 -0.43620339
0.05651816 0.002184137 -0.43470356
0.055390455 0.0021766082 -0.43307874
0.054316953 0.0021709488 -0.43182886
0.053248927 0.0021652763 -0.43057901
0.052201536 0.0021602185 -0.42945412
0.051084425 0.0021520036 -0.4277043
0.049886908 0.00214 -0.42520458
0.048484109 0.0021185419 -0.42083004
0.047198903 0.0021014672 -0.41733041
0.046095084 0.0020919284 -0.41533062
0.045163158 0.0020899314 -0.41483068
0.044273511 0.0020898129 -0.41470569
0.043423764 0.0020915742 -0.41495568
0.042560276 0.0020926963 -0.41508067
0.041721497 0.0020950695 -0.41545561
0.040856697 0.0020961734 -0.4155806
0.039991483 0.0020972677 -0.41570559
0.039125863 0.0020983522 -0.41583058
0.03825983 0.0020994272 -0.41595557
0.037404612 0.0021011236 -0.41620553
0.036548462 0.0021028109 -0.41645551
0.035691354 0.0021044887 -0.41670549
0.034822866 0.0021055262 -0.41683048
0.033953946 0.0021065536 -0.41695544
0.033064779 0.0021063092 -0.41683048
0.032176226 0.0021060538 -0.41670549
0.031288292 0.0021057886 -0.4165805
0.030400984 0.0021055134 -0.41645551
0.029505424 0.0021045962 -0.41620553
0.028611006 0.0021036686 -0.41595557
0.027717721 0.0021027306 -0.41570559
0.02682557 0.0021017827 -0.41545561
0.025942355 0.0021014567 -0.41533062
0.025059735 0.002101121 -0.41520563
0.024177719 0.002100775 -0.41508067
0.023303309 0.0021010519 -0.41508067
0.022422211 0.0021006861 -0.41495568
0.0215417 0.0021003098 -0.41483068
0.020661775 0.0020999245 -0.41470569
0.019788396 0.0021001613 -0.41470569
0.018909363 0.0020997555 -0.4145807
0.018030914 0.0020993396 -0.41445571
0.017158208 0.0020995468 -0.41445571
0.016280636 0.0020991112 -0.41433072
0.015403637 0.0020986658 -0.41420576
0.014522813 0.0020975769 -0.41395578
0.0136472 0.0020971112 -0.41383079
0.012764429 0.0020953685 -0.41345584
0.011890457 0.002094883 -0.41333085
0.011007042 0.0020924865 -0.41283089
0.010131896 0.0020913477 -0.41258094
0.0092634354 0.0020914653 -0.41258094
0.0083822785 0.0020884054 -0.41195598
0.0075106104 0.0020872361 -0.41170603
0.0066279061 0.0020822547 -0.41070613
0.005747667 0.00207663 -0.40958124
0.0048676985 0.0020690933 -0.40808141
0.0039842278 0.0020564771 -0.40558168
0.0031016341 0.0020375124 -0.40183207
0.0022376322 0.0020210731 -0.39858243
0.0013925697 0.0020122284 -0.39683262
0.00055574573 0.0020065429 -0.39570773
-0.00027661317 0.0020027496 -0.39495781
-0.0011061763 0.0019995805 -0.39433289
-0.0019337351 0.0019970357 -0.39383292
-0.0027592049 0.0019944815 -0.39333299
-0.0035803088 0.0019906505 -0.39258307
-0.0043968731 0.0019861767 -0.39170817
-0.0052097761 0.0019816933 -0.39083326
-0.00602481 0.0019791024 -0.39033329
-0.0068443441 0.001978403 -0.3902083
-0.0076658376 0.0019783282 -0.3902083
-0.0084873643 0.0019782442 -0.3902083
-0.00931489 0.0019794179 -0.39045829
-0.010143511 0.001980583 -0.39070827
-0.01097673 0.0019823711 -0.39108321
-0.011815343 0.0019847834 -0.39158317
-0.012660147 0.0019878196 -0.3922081
-0.013511926 0.0019914794 -0.39295802
-0.014371479 0.0019957633 -0.39383292
-0.015239593 0.0020006697 -0.39483282
-0.016117068 0.0020061994 -0.39595771
-0.017004691 0.0020123518 -0.39720756
-0.017903257 0.0020191271 -0.39858243
-0.018807685 0.0020258911 -0.39995727
-0.019711835 0.002032011 -0.40120715
-0.020614916 0.0020374875 -0.40233201
-0.021509482 0.002041687 -0.40320691
-0.022400878 0.0020452435 -0.40395683
-0.023281133 0.0020475241 -0.40445679
-0.024163578 0.0020497944 -0.40495673
-0.025040494 0.0020514214 -0.4053317
-0.025919082 0.0020530384 -0.40570664
-0.026799342 0.0020546459 -0.40608162
-0.027689796 0.002056875 -0.40658155
-0.028582456 0.0020590941 -0.40708151
-0.029513482 0.0020638311 -0.40808141
-0.030420918 0.0020666602 -0.40870634
-0.031350236 0.0020707429 -0.40958124
-0.032293189 0.0020754463 -0.41058114
-0.03325057 0.0020807702 -0.41170603
-0.034233533 0.0020873449 -0.41308087
-0.035190552 0.0020920136 -0.41408077
-0.036130145 0.0020954076 -0.41483068
-0.037039582 0.0020968968 -0.41520563
-0.037950739 0.0020983757 -0.4155806
-0.038851932 0.0020992125 -0.41583058
-0.039754312 0.0021000397 -0.41608053
-0.040657897 0.0021008565 -0.41633052
-0.041562669 0.0021016623 -0.4165805
-0.042455919 0.0021018281 -0.41670549
-0.043362848 0.0021026141 -0.41695544
-0.044257715 0.0021027594 -0.41708043
-0.045166798 0.0021035245 -0.41733041
-0.046063304 0.00210365 -0.4174554
-0.046974566 0.0021043944 -0.41770539
-0.047872718 0.0021044991 -0.41783035
-0.048786167 0.0021052239 -0.41808033
-0.049700834 0.0021059371 -0.41833031
-0.050601624 0.0021060121 -0.4184553
-0.051518496 0.0021067047 -0.41870525
-0.052436616 0.0021073874 -0.41895524
-0.053355977 0.0021080601 -0.41920522
-0.054276586 0.0021087215 -0.4194552
-0.055182014 0.002108745 -0.41958016
-0.056121569 0.0021100144 -0.41995513
-0.057045955 0.0021106452 -0.42020512
-0.057971586 0.002111265 -0.42045507
-0.058898501 0.002111875 -0.42070505
-0.059826683 0.0021124743 -0.42095503
-0.060756139 0.0021130629 -0.42120501
-0.061705161 0.002114268 -0.42157996
-0.062637441 0.0021148357 -0.42182994
-0.063589841 0.0021160194 -0.42220488
-0.064486787 0.002115313 -0.42220488
-0.06540332 0.0021152233 -0.42232987
-0.066281378 0.0021138717 -0.42220488
-0.067179039 0.0021131372 -0.42220488
-0.0681374 0.0021142687 -0.42257985
-0.069097608 0.0021153893 -0.42295483
-0.070038959 0.0021158736 -0.42320478
-0.070855945 0.0021126003 -0.42270485
-0.071522534 0.0021049473 -0.42132998
-0 0 -0
-0 0 -0
-0 0 -0
-0 0 -0
-0 0 -0
-0 0 -0
-0 0 -0
-0 0 -0
0 0 -0
0.064375468 0.0012907049 -0.44445252
0.063415714 0.0012911315 -0.44432753
0.062421568 0.0012908195 -0.44395256
0.061342668 0.0012886768 -0.44295269
0.06013184 0.0012836085 -0.4409529
0.058862574 0.0012770663 -0.43845317
0.057604071 0.0012705044 -0.43595344
0.056486331 0.0012668385 -0.43445358
0.055375129 0.0012631569 -0.43295375
0.054301869 0.001260189 -0.43170387
0.053249557 0.0012575712 -0.43057901
0.052217357 0.0012553042 -0.42957911
0.051204473 0.0012533885 -0.4287042
0.050166115 0.0012507279 -0.42757931
0.048988681 0.0012443953 -0.42520458
0.047722485 0.0012354832 -0.42195493
0.04644243 0.0012258189 -0.4184553
0.045299772 0.0012194307 -0.41608053
0.044314064 0.0012170568 -0.41508067
0.043424282 0.0012172358 -0.41495568
0.042573601 0.0012185043 -0.41520563
0.041684352 0.0012186619 -0.41508067
0.040820312 0.0012195426 -0.41520563
0.039943866 0.0012200456 -0.41520563
0.039079286 0.0012209053 -0.41533062
0.0382143 0.0012217546 -0.41545561
0.037360135 0.0012229611 -0.41570559
0.036505025 0.0012241574 -0.41595557
0.035648968 0.0012253434 -0.41620553
0.034781516 0.0012261512 -0.41633052
0.033913638 0.0012269482 -0.41645551
0.033035424 0.0012273667 -0.41645551
0.032147661 0.0012274057 -0.41633052
0.031260509 0.0012274338 -0.41620553
0.030364856 0.0012270821 -0.41595557
0.0294792 0.0012270882 -0.41583058
0.028585559 0.0012267139 -0.4155806
0.027701385 0.0012266975 -0.41545561
0.02680975 0.0012263011 -0.41520563
0.025927057 0.001226263 -0.41508067
0.025044953 0.0012262134 -0.41495568
0.024163449 0.0012261531 -0.41483068
0.023282539 0.001226082 -0.41470569
0.022402221 0.0012259997 -0.4145807
0.02152249 0.0012259067 -0.41445571
0.020649573 0.0012261722 -0.41445571
0.019770743 0.0012260573 -0.41433072
0.018892497 0.0012259313 -0.41420576
0.018020259 0.0012261645 -0.41420576
0.017142894 0.0012260167 -0.41408077
0.016266104 0.0012258581 -0.41395578
0.015394528 0.0012260589 -0.41395578
0.014514221 0.0012255083 -0.4137058
0.013639124 0.001225317 -0.41358081
0.012760727 0.0012247445 -0.41333085
0.011883412 0.001224161 -0.41308087
0.011003846 0.0012231963 -0.4127059
0.010128953 0.0012225909 -0.41245595
0.0092523266 0.0012216039 -0.41208097
0.0083798412 0.0012209768 -0.41183099
0.0075038658 0.0012195975 -0.41133106
0.0066279909 0.0012178366 -0.41070613
0.0057494952 0.0012149529 -0.40970623
0.0048692538 0.0012105755 -0.4082064
0.0039830538 0.0012024803 -0.40545669
0.0030997477 0.0011910374 -0.40158209
0.002236261 0.0011814369 -0.39833245
0.0013912765 0.0011759031 -0.39645764
0.00055505632 0.0011722127 -0.39520779
-0.00027626025 0.0011699944 -0.39445785
-0.0011044303 0.0011677658 -0.39370793
-0.0019300699 0.0011658981 -0.39308301
-0.0027530943 0.0011640198 -0.39245808
-0.0035723662 0.0011617609 -0.39170817
-0.0043870979 0.001159121 -0.39083326
-0.0052015013 0.0011572127 -0.3902083
-0.0060171583 0.0011560357 -0.38983336
-0.0068356497 0.0011555898 -0.38970837
-0.0076561002 0.0011555044 -0.38970837
-0.0084793037 0.0011557795 -0.38983336
-0.0093060499 0.0011564147 -0.39008331
-0.010130645 0.0011566696 -0.3902083
-0.010962822 0.0011576547 -0.39058328
-0.011796622 0.0011586293 -0.39095822
-0.012640119 0.0011603346 -0.39158317
-0.013490591 0.0011623991 -0.39233309
-0.014348837 0.0011648231 -0.393208
-0.015215647 0.0011676064 -0.39420789
-0.016096903 0.0011711188 -0.39545774
-0.016983483 0.0011746195 -0.39670762
-0.017869782 0.0011777389 -0.39783251
-0.018772637 0.0011815863 -0.39920735
-0.019675214 0.0011850519 -0.4004572
-0.020583136 0.0011885056 -0.40170708
-0.021483058 0.0011912077 -0.40270698
-0.022387277 0.0011938985 -0.40370688
-0.023281403 0.001195838 -0.40445679
-0.024163855 0.0011970272 -0.40495673
-0.025048507 0.001198205 -0.40545669
-0.025935357 0.0011993716 -0.40595663
-0.02681615 0.0012001578 -0.4063316
-0.027707145 0.0012013018 -0.40683153
-0.028661769 0.0012050172 -0.4082064
-0.029676534 0.0012109327 -0.41033116
-0.030625938 0.0012138837 -0.41145605
-0.031474974 0.0012127673 -0.41120607
-0.032352552 0.0012127465 -0.41133106
-0.03325095 0.001213451 -0.41170603
-0.034182142 0.0012152495 -0.41245595
-0.035148475 0.0012181399 -0.41358081
-0.036108799 0.0012206492 -0.4145807
-0.037017714 0.0012213063 -0.41495568
-0.037916932 0.001221584 -0.41520563
-0.038829025 0.0012222183 -0.4155806
-0.039730892 0.0012224733 -0.41583058
-0.040646166 0.0012230845 -0.41620553
-0.041550685 0.0012233165 -0.41645551
-0.042456415 0.0012235376 -0.41670549
-0.043350354 0.0012233802 -0.41683048
-0.044244964 0.0012232119 -0.41695544
-0.0451538 0.0012233988 -0.41720542
-0.046050057 0.0012232085 -0.41733041
-0.046947006 0.0012230066 -0.4174554
-0.047858957 0.0012231596 -0.41770539
-0.048772145 0.0012233013 -0.41795534
-0.049686559 0.0012234316 -0.41820532
-0.050602209 0.0012235503 -0.4184553
-0.051519096 0.0012236574 -0.41870525
-0.052421585 0.0012233881 -0.41883025
-0.0533407 0.0012234725 -0.41908023
-0.054261047 0.0012235454 -0.41933021
-0.055182654 0.0012236065 -0.41958016
-0.056105521 0.0012236565 -0.41983014
-0.057029642 0.0012236946 -0.42008013
-0.057955027 0.0012237211 -0.42033011
-0.058899183 0.0012240997 -0.42070505
-0.05982738 0.001224103 -0.42095503
-0.060756836 0.0012240944 -0.42120501
-0.061705876 0.0012244373 -0.42157996
-0.06265673 0.001224768 -0.42195493
-0.063590579 0.0012247241 -0.42220488
-0.06450662 0.0012243061 -0.42232987
-0.065384731 0.0012231531 -0.42220488
-0.066242911 0.0012216275 -0.42195493
-0.067100272 0.0012200922 -0.42170495
-0.068037421 0.0012199926 -0.42195493
-0.069057576 0.0012213259 -0.42270485
-0.070039779 0.0012219237 -0.42320478
-0.070940562 0.0012210661 -0.42320478
-0.071714312 0.0012180356 -0.42245486
-0 0 -0
-0 0 -0
-0 0 -0
-0 0 -0
-0 0 -0
-0 0 -0
-0 0 -0
-0 0 -0
0 0 -0
0.064412497 0.00035329963 -0.44470248
0.063470058 0.00035415677 -0.44470248
0.062492672 0.00035480177 -0.44445252
0.061447311 0.00035503332 -0.44370261
0.060166705 0.00035384626 -0.44120288
0.058880106 0.00035253723 -0.43857816
0.057571776 0.00035100494 -0.43570346
0.056487054 0.00035076198 -0.43445358
0.055359859 0.00035019923 -0.43282875
0.054271135 0.00034982126 -0.43145391
0.053250246 0.00034983267 -0.43057901
0.052248415 0.0003499309 -0.42982909
0.051234987 0.00034991253 -0.42895418
0.050269421 0.00035018579 -0.42845422
0.049248517 0.0003500359 -0.42745432
0.048175454 0.00034946081 -0.42595449
0.046956293 0.00034773914 -0.42307979
0.045681372 0.00034548229 -0.41958016
0.04448811 0.00034371897 -0.41670549
0.043490242 0.00034338143 -0.4155806
0.042561337 0.00034354624 -0.41508067
0.041672334 0.00034400879 -0.41495568
0.040833134 0.00034487451 -0.41533062
0.039908309 0.00034500184 -0.41483068
0.03903275 0.00034553258 -0.41483068
0.038191799 0.00034636442 -0.41520563
0.037326917 0.00034697665 -0.41533062
0.036472585 0.00034768198 -0.4155806
0.035617314 0.00034837628 -0.41583058
0.034750644 0.00034895455 -0.41595557
0.033873368 0.00034941622 -0.41595557
0.0329962 0.00034986628 -0.41595557
0.032119121 0.00035030456 -0.41595557
0.031232754 0.00035062575 -0.41583058
0.030347001 0.00035093489 -0.41570559
0.029452998 0.00035112642 -0.41545561
0.028560137 0.00035130576 -0.41520563
0.027676746 0.00035157875 -0.41508067
0.02678589 0.00035173388 -0.41483068
0.025903972 0.00035198289 -0.41470569
0.025022646 0.00035221994 -0.4145807
0.024141921 0.00035244512 -0.41445571
0.023261791 0.00035265839 -0.41433072
0.022382254 0.00035285979 -0.41420576
0.021509791 0.00035315586 -0.41420576
0.020631157 0.00035333354 -0.41408077
0.01975311 0.00035349937 -0.41395578
0.01888134 0.0003537602 -0.41395578
0.018009618 0.00035400924 -0.41395578
0.01713277 0.00035413966 -0.41383079
0.016261404 0.00035436524 -0.41383079
0.015385432 0.00035447211 -0.4137058
0.014510026 0.00035456711 -0.41358081
0.013635184 0.00035465034 -0.41345584
0.012760894 0.00035472171 -0.41333085
0.011883569 0.000354674 -0.41308087
0.011003992 0.00035450709 -0.4127059
0.010126018 0.00035432822 -0.41233096
0.0092496425 0.00035413736 -0.41195598
0.0083774095 0.00035404222 -0.41170603
0.0075062448 0.00035393526 -0.41145605
0.0066321129 0.00035360144 -0.41095608
0.0057530804 0.00035282553 -0.40995622
0.004869319 0.00035139211 -0.4082064
0.0039818799 0.00034897806 -0.4053317
0.0030911081 0.00034482981 -0.4004572
0.0022306794 0.00034217606 -0.39733255
0.001388227 0.00034069468 -0.39558274
0.00055401307 0.00033974019 -0.39445785
-0.0002756482 0.0003389898 -0.39358294
-0.0011019874 0.00033833596 -0.39283302
-0.0019251823 0.00033767102 -0.39208311
-0.0027461126 0.00033710271 -0.39145818
-0.0035632902 0.00033641589 -0.39070827
-0.0043787337 0.00033582572 -0.39008331
-0.0051932354 0.00033533236 -0.38958338
-0.0060114455 0.00033515081 -0.38945839
-0.0068291579 0.00033495831 -0.3893334
-0.0076488294 0.00033486233 -0.3893334
-0.0084712533 0.00033486285 -0.38945839
-0.0092942398 0.00033485223 -0.38958338
-0.010121038 0.00033493797 -0.38983336
-0.010948928 0.0003350125 -0.39008331
-0.011781686 0.00033518308 -0.39045829
-0.012624139 0.00033555678 -0.39108321
-0.01347357 0.0003360261 -0.39183313
-0.014321652 0.00033637654 -0.39245808
-0.015191719 0.00033714355 -0.39358294
-0.016066581 0.00033789824 -0.39470783
-0.016951595 0.00033874752 -0.39595771
-0.017836323 0.00033947729 -0.39708257
-0.018725855 0.0003401945 -0.39820746
-0.019626338 0.00034100571 -0.39945734
-0.020538567 0.00034191058 -0.40083218
-0.021456663 0.00034280232 -0.40220702
-0.022373702 0.0003435743 -0.4034569
-0.023281699 0.00034412029 -0.40445679
-0.024171624 0.00034433464 -0.40508172
-0.025056548 0.00034443036 -0.40558168
-0.025935683 0.00034440777 -0.40595663
-0.026816497 0.00034437308 -0.4063316
-0.027716007 0.0003445379 -0.40695652
-0.028758671 0.0003463813 -0.40958124
-0.029740186 0.0003473635 -0.41120607
-0.030756576 0.00034864736 -0.41320586
-0.031647582 0.00034844095 -0.41345584
-0.032402113 0.00034674941 -0.41195598
-0.033281665 0.00034641541 -0.41208097
-0.034182582 0.00034627938 -0.41245595
-0.035138302 0.00034665476 -0.41345584
-0.036076602 0.00034680695 -0.41420576
-0.036973584 0.00034652767 -0.41445571
-0.037894599 0.00034644484 -0.41495568
-0.038794488 0.00034614062 -0.41520563
-0.039707515 0.00034592813 -0.4155806
-0.040622272 0.00034570298 -0.41595557
-0.041526273 0.0003453613 -0.41620553
-0.042431489 0.00034500737 -0.41645551
-0.043337908 0.00034464092 -0.41670549
-0.04424553 0.00034426208 -0.41695544
-0.045140848 0.00034376775 -0.41708043
-0.046036851 0.00034326129 -0.41720542
-0.046947606 0.00034284539 -0.4174554
-0.047845252 0.00034231445 -0.4175804
-0.048758183 0.00034187365 -0.41783035
-0.049657494 0.0003413182 -0.41795534
-0.05057263 0.00034085248 -0.41820532
-0.051488996 0.00034037416 -0.4184553
-0.052406602 0.00033988321 -0.41870525
-0.053325471 0.00033937974 -0.41895524
-0.054245573 0.00033886349 -0.41920522
-0.055166919 0.00033833459 -0.4194552
-0.056106236 0.00033789367 -0.41983014
-0.057030369 0.00033733918 -0.42008013
-0.057955772 0.00033677198 -0.42033011
-0.058882438 0.000336192 -0.42058006
-0.059810385 0.00033559932 -0.42083004
-0.060757615 0.00033509321 -0.42120501
-0.061688375 0.00033447467 -0.42145497
-0.062638968 0.00033394221 -0.42182994
-0.063553751 0.0003331991 -0.42195493
-0.06446927 0.00033244351 -0.42207992
-0.065346852 0.00033147927 -0.42195493
-0.066126026 0.00033001398 -0.42120501
-0.066942014 0.0003287353 -0.42070505
-0.067957684 0.00032842098 -0.42145497
-0.068895087 0.00032770299 -0.42170495
-0.070144102 0.00032842497 -0.42382973
-0.071046233 0.00032748384 -0.42382973
-0 0 -0
-0 0 -0
-0 0 -0
-0 0 -0
-0.078702748 0.00033601365 -0.44145283
-0 0 -0
-0 0 -0
-0 0 -0
-0 0 -0
0 -0 -0
0 -0 -0
0.06357798 -0.00058493012 -0.44545242
0.062634133 -0.00058401818 -0.44545242
0.061586645 -0.00058213831 -0.44470248
0.060372084 -0.00057864143 -0.44270271
0.059031945 -0.00057386101 -0.43970302
0.057688177 -0.00056894281 -0.43657836
0.05648784 -0.00056535122 -0.43445358
0.05536063 -0.00056243053 -0.43282875
0.054287616 -0.00056001561 -0.4315789
0.053266447 -0.00055810425 -0.430704
0.052264325 -0.000556371 -0.42995405
0.051265553 -0.00055465352 -0.42920414
0.050284784 -0.00055311329 -0.42857921
0.049278006 -0.00055126596 -0.4277043
0.048359897 -0.00055039994 -0.42757931
0.047276001 -0.00054761919 -0.42595449
0.046049431 -0.00054309133 -0.42295483
0.044875704 -0.00053906674 -0.42033011
0.043739364 -0.00053538324 -0.41795534
0.042690091 -0.00053267932 -0.41633052
0.041710563 -0.00053079147 -0.41533062
0.040809128 -0.00052987674 -0.41508067
0.039896838 -0.00052881596 -0.41470569
0.039056815 -0.00052872399 -0.41508067
0.038180836 -0.00052816671 -0.41508067
0.037316207 -0.00052778091 -0.41520563
0.036462124 -0.00052756624 -0.41545561
0.035596393 -0.00052720518 -0.4155806
0.034730244 -0.00052685628 -0.41570559
0.033853482 -0.00052636169 -0.41570559
0.032976829 -0.00052587979 -0.41570559
0.032100268 -0.00052541052 -0.41570559
0.031214416 -0.00052479614 -0.4155806
0.03032005 -0.00052403705 -0.41533062
0.029426832 -0.00052329118 -0.41508067
0.028543346 -0.00052271585 -0.41495568
0.02765213 -0.00052199612 -0.41470569
0.026762052 -0.00052128959 -0.41445571
0.025888717 -0.00052091037 -0.41445571
0.025000367 -0.00052022975 -0.41420576
0.024127699 -0.00051987602 -0.41420576
0.023248082 -0.00051937811 -0.41408077
0.022369059 -0.00051889307 -0.41395578
0.021497108 -0.00051857746 -0.41395578
0.020618992 -0.00051811791 -0.41383079
0.019741455 -0.00051767123 -0.4137058
0.018870199 -0.00051739358 -0.4137058
0.017998993 -0.00051712862 -0.4137058
0.017127834 -0.00051687623 -0.4137058
0.016256718 -0.00051663653 -0.4137058
0.015381 -0.00051625335 -0.41358081
0.014505845 -0.00051588303 -0.41345584
0.013627127 -0.00051536941 -0.41320586
0.012761072 -0.00051533617 -0.41333085
0.011887331 -0.00051500386 -0.41320586
0.011007478 -0.00051437283 -0.41283089
0.010129228 -0.00051375467 -0.41245595
0.0092497719 -0.00051299366 -0.41195598
0.008377526 -0.0005125567 -0.41170603
0.0075063496 -0.00051213254 -0.41145605
0.0066342228 -0.00051156536 -0.41108108
0.0057549141 -0.00051023345 -0.41008118
0.0048693875 -0.00050782604 -0.4082064
0.0039635175 -0.0005018558 -0.4034569
0.0030737845 -0.0004952774 -0.39820746
0.0022229918 -0.00049244292 -0.39595771
0.0013851757 -0.00049086427 -0.39470783
0.00055296719 -0.00048960862 -0.39370793
-0.00027503961 -0.00048836507 -0.39270803
-0.0010995488 -0.00048744419 -0.39195812
-0.0019202995 -0.00048637987 -0.39108321
-0.0027391366 -0.00048563821 -0.39045829
-0.0035565009 -0.00048506385 -0.38995835
-0.00437178 -0.00048450113 -0.38945839
-0.0051883096 -0.00048426114 -0.38920841
-0.0060038134 -0.00048403299 -0.38895845
-0.0068226764 -0.00048412773 -0.38895845
-0.0076415706 -0.00048423425 -0.38895845
-0.0084632169 -0.00048450823 -0.38908345
-0.0092854248 -0.00048479417 -0.38920841
-0.010111444 -0.00048524793 -0.38945839
-0.010938556 -0.00048571365 -0.38970837
-0.011770536 -0.00048634727 -0.39008331
-0.012612212 -0.00048730487 -0.39070827
-0.013452269 -0.00048811905 -0.3912082
-0.01431273 -0.00048956973 -0.3922081
-0.015177459 -0.00049103348 -0.393208
-0.016046453 -0.00049251027 -0.39420789
-0.016925076 -0.00049415656 -0.39533275
-0.017802883 -0.00049565994 -0.39633265
-0.018690851 -0.00049733318 -0.39745754
-0.019589769 -0.0004991765 -0.39870742
-0.020500427 -0.00050119037 -0.40008226
-0.021430291 -0.00050353172 -0.40170708
-0.022360153 -0.00050573132 -0.40320691
-0.023267636 -0.00050731801 -0.40420681
-0.024171961 -0.00050876173 -0.40508172
-0.02502601 -0.00050911971 -0.40508172
-0.025920076 -0.00051027612 -0.40570664
-0.026816871 -0.00051144609 -0.4063316
-0.027733423 -0.00051294453 -0.40720651
-0.02886438 -0.00051823852 -0.41108108
-0.029975636 -0.00052292255 -0.41445571
-0.030803524 -0.00052257557 -0.41383079
-0.031724557 -0.00052381953 -0.41445571
-0.03252054 -0.00052302226 -0.41345584
-0.03331241 -0.00052223512 -0.41245595
-0.034255568 -0.00052383455 -0.41333085
-0.035117544 -0.00052418013 -0.41320586
-0.036011785 -0.00052501407 -0.41345584
-0.03694066 -0.000526338 -0.41408077
-0.037849464 -0.00052735809 -0.41445571
-0.038771674 -0.000528551 -0.41495568
-0.039672241 -0.0005294393 -0.41520563
-0.040598422 -0.00053066009 -0.41570559
-0.041501917 -0.00053157541 -0.41595557
-0.04241934 -0.00053266418 -0.41633052
-0.043312516 -0.00053344661 -0.41645551
-0.044219624 -0.0005344025 -0.41670549
-0.04511442 -0.00053521135 -0.41683048
-0.046023697 -0.00053619407 -0.41708043
-0.046920139 -0.00053702941 -0.41720542
-0.047831599 -0.00053803908 -0.4174554
-0.048744284 -0.00053906237 -0.41770539
-0.049643334 -0.0005399377 -0.41783035
-0.050573338 -0.00054114976 -0.41820532
-0.051489718 -0.00054221402 -0.4184553
-0.052407335 -0.00054329197 -0.41870525
-0.053326212 -0.00054438371 -0.41895524
-0.054246325 -0.00054548914 -0.41920522
-0.055167686 -0.00054660835 -0.4194552
-0.056107018 -0.00054790458 -0.41983014
-0.057031166 -0.00054905174 -0.42008013
-0.057956588 -0.00055021275 -0.42033011
-0.058883257 -0.00055138767 -0.42058006
-0.05981122 -0.00055257656 -0.42083004
-0.06074043 -0.00055377919 -0.42108002
-0.061689235 -0.00055516063 -0.42145497
-0.062639847 -0.00055655657 -0.42182994
-0.063554637 -0.00055763673 -0.42195493
-0.064451076 -0.00055856491 -0.42195493
-0.065231621 -0.00055851159 -0.42120501
-0.065930717 -0.0005578039 -0.41995513
-0.066704296 -0.00055776862 -0.41920522
-0.067555547 -0.00055840908 -0.41895524
-0.068936892 -0.00056340033 -0.42195493
-0.070165761 -0.00056708121 -0.4239547
-0 -0 -0
-0 -0 -0
-0.075430386 -0.00059019559 -0.43882811
-0.076648027 -0.00059348514 -0.44045293
-0.077674717 -0.00059527793 -0.4409529
-0.078659281 -0.00059674884 -0.44120288
-0.079690285 -0.00059857324 -0.44170281
-0 -0 -0
-0 -0 -0
-0 -0 -0
0 -0 -0
0 -0 -0
0.063739471 -0.0015285049 -0.44657728
0.062740535 -0.0015262425 -0.44620234
0.061743353 -0.0015239961 -0.44582736
0.060509339 -0.0015157884 -0.44370261
0.059267759 -0.0015071781 -0.44145283
0.057870716 -0.0014943267 -0.4379532
0.056586191 -0.0014840615 -0.43520349
0.055393424 -0.0014759519 -0.43307874
0.054288421 -0.0014699933 -0.4315789
0.053267241 -0.0014661823 -0.430704
0.052265115 -0.0014628142 -0.42995405
0.051296186 -0.001460313 -0.42945412
0.050300211 -0.0014569786 -0.4287042
0.049321942 -0.0014540853 -0.42807928
0.048318211 -0.0014503599 -0.42720437
0.047262836 -0.0014449552 -0.4258295
0.046240639 -0.0014404173 -0.42470464
0.045156598 -0.0014337782 -0.42295483
0.044067029 -0.0014267359 -0.42108002
0.042921424 -0.0014175967 -0.41858029
0.041861821 -0.0014110181 -0.41683048
0.040858895 -0.0014061501 -0.4155806
0.039957557 -0.0014046812 -0.41533062
0.039069157 -0.0014036495 -0.41520563
0.038192898 -0.0014030539 -0.41520563
0.037327994 -0.0014028944 -0.41533062
0.036484614 -0.0014035923 -0.41570559
0.035607629 -0.001403037 -0.41570559
0.034730762 -0.0014024955 -0.41570559
0.033843815 -0.0014015463 -0.4155806
0.032977324 -0.0014014537 -0.41570559
0.032081444 -0.0014001107 -0.41545561
0.031186715 -0.001398782 -0.41520563
0.030293133 -0.0013974677 -0.41495568
0.029409546 -0.0013965882 -0.41483068
0.02851798 -0.001395302 -0.4145807
0.027635872 -0.0013944503 -0.41445571
0.02674631 -0.0013931924 -0.41420576
0.025873488 -0.0013927887 -0.41420576
0.024985649 -0.0013915584 -0.41395578
0.024106218 -0.0013907624 -0.41383079
0.023234393 -0.0013904 -0.41383079
0.022355881 -0.0013896311 -0.4137058
0.021484444 -0.001389296 -0.4137058
0.020606844 -0.0013885546 -0.41358081
0.019735781 -0.0013882465 -0.41358081
0.018859079 -0.0013875328 -0.41345584
0.017988384 -0.0013872519 -0.41345584
0.017117739 -0.0013869846 -0.41345584
0.01624714 -0.0013867308 -0.41345584
0.015376581 -0.0013864907 -0.41345584
0.014501673 -0.0013858447 -0.41333085
0.013631451 -0.0013856317 -0.41333085
0.012761261 -0.001385432 -0.41333085
0.011891101 -0.0013852457 -0.41333085
0.011010972 -0.0013838167 -0.41295588
0.010132446 -0.0013824014 -0.41258094
0.0092555201 -0.0013809998 -0.41220596
0.0083827348 -0.0013800308 -0.41195598
0.0075087389 -0.0013786566 -0.41158104
0.0066363364 -0.0013772962 -0.41120607
0.005754997 -0.0013734376 -0.41008118
0.0048649837 -0.0013658258 -0.40783143
0.0039463835 -0.0013452527 -0.40170708
0.0030641796 -0.0013292984 -0.39695761
0.0022174078 -0.0013225657 -0.39495781
0.0013821225 -0.001318776 -0.39383292
0.00055174326 -0.0013154179 -0.39283302
-0.00027443439 -0.0013120726 -0.39183313
-0.0010967635 -0.0013091585 -0.39095822
-0.001916036 -0.0013066757 -0.3902083
-0.0027339205 -0.0013050426 -0.38970837
-0.0035497178 -0.0013034219 -0.38920841
-0.0043662372 -0.0013026515 -0.38895845
-0.0051817265 -0.0013018931 -0.38870847
-0.006000048 -0.0013019849 -0.38870847
-0.0068162051 -0.0013016706 -0.38858348
-0.0076367781 -0.0013022064 -0.38870847
-0.0084579093 -0.001302755 -0.38883346
-0.0092796031 -0.0013033166 -0.38895845
-0.010105108 -0.0013043095 -0.38920841
-0.010931707 -0.0013053156 -0.38945839
-0.011759401 -0.0013063345 -0.38970837
-0.012600301 -0.0013086237 -0.39033329
-0.013443879 -0.0013109259 -0.39095822
-0.014303825 -0.0013144992 -0.39195812
-0.015168039 -0.0013180869 -0.39295802
-0.016036525 -0.0013216883 -0.39395791
-0.016903928 -0.0013248845 -0.39483282
-0.017780701 -0.0013285144 -0.39583272
-0.018661745 -0.0013321587 -0.39683262
-0.019553218 -0.0013362367 -0.39795747
-0.020462312 -0.0013411696 -0.39933234
-0.021390609 -0.0013469574 -0.40095717
-0.022325832 -0.0013527608 -0.40258199
-0.023260795 -0.0013581604 -0.40408182
-0.024127577 -0.0013593739 -0.4043318
-0.02502639 -0.0013622823 -0.40508172
-0.025904499 -0.0013639441 -0.40545669
-0.026776031 -0.0013651993 -0.40570664
-0.027725326 -0.001370255 -0.40708151
-0.028838491 -0.0013829019 -0.41070613
-0.029958012 -0.0013951496 -0.41420576
-0.03101797 -0.0014040498 -0.41670549
-0.031801578 -0.0014003308 -0.41545561
-0.032639004 -0.0013991514 -0.41495568
-0.033413865 -0.0013954547 -0.4137058
-0.034245722 -0.0013942989 -0.41320586
-0.035128698 -0.0013952652 -0.41333085
-0.036012325 -0.0013962451 -0.41345584
-0.036941219 -0.0013989282 -0.41408077
-0.037838623 -0.001400359 -0.41433072
-0.038748901 -0.0014022271 -0.41470569
-0.039660901 -0.00140411 -0.41508067
-0.040574625 -0.0014060073 -0.41545561
-0.041502543 -0.0014083431 -0.41595557
-0.042407252 -0.0014098471 -0.41620553
-0.043300167 -0.0014109419 -0.41633052
-0.044207033 -0.0014124751 -0.4165805
-0.045101579 -0.0014135987 -0.41670549
-0.045996811 -0.0014147364 -0.41683048
-0.046906795 -0.0014163128 -0.41708043
-0.047803678 -0.0014174792 -0.41720542
-0.048715841 -0.0014190846 -0.4174554
-0.04962923 -0.0014207046 -0.41770539
-0.050558973 -0.001422765 -0.41808033
-0.051475115 -0.001424415 -0.41833031
-0.052408136 -0.0014265056 -0.41870525
-0.053327013 -0.0014281855 -0.41895524
-0.054247137 -0.0014298802 -0.41920522
-0.055168524 -0.0014315899 -0.4194552
-0.05610786 -0.0014337413 -0.41983014
-0.057032034 -0.0014354814 -0.42008013
-0.057957452 -0.0014372361 -0.42033011
-0.058884155 -0.001439006 -0.42058006
-0.05981211 -0.0014407908 -0.42083004
-0.060723331 -0.0014421628 -0.42095503
-0.061653584 -0.0014439777 -0.42120501
-0.062585115 -0.0014458077 -0.42145497
-0.063480273 -0.0014467947 -0.42145497
-0.064356588 -0.0014473666 -0.42132998
-0.065019675 -0.0014432259 -0.41983014
-0.065813981 -0.0014421012 -0.41920522
-0.066685423 -0.0014427089 -0.41908023
-0.067617029 -0.0014446214 -0.41933021
-0.068978764 -0.0014555984 -0.42220488
-0.070311613 -0.0014657418 -0.4248296
-0.071949229 -0.0014819546 -0.42920414
-0.073711827 -0.0015003644 -0.43420362
-0.075302616 -0.0015149252 -0.43807819
-0.076562174 -0.0015226005 -0.439953
-0.077609845 -0.0015259719 -0.44057792
-0.078615911 -0.0015284952 -0.4409529
-0.079668939 -0.0015319024 -0.44157782
-0.080702126 -0.001534894 -0.44207779
-0 -0 -0
-0 -0 -0
0 -0 -0
0 -0 -0
0 -0 -0
0.062899694 -0.0024737483 -0.4473272
0.061778955 -0.0024658069 -0.44607735
0.060629629 -0.0024565067 -0.44457752
0.059453294 -0.0024458482 -0.4428277
0.058053322 -0.0024255526 -0.43932807
0.056684617 -0.0024059776 -0.43595344
0.055458263 -0.0023919493 -0.43357867
0.054336458 -0.002382081 -0.43195385
0.053283546 -0.0023749918 -0.43082896
0.052281141 -0.002369988 -0.43007904
0.051297002 -0.0023656914 -0.42945412
0.050301004 -0.0023607246 -0.4287042
0.049293935 -0.0023550875 -0.4278293
0.04827657 -0.0023487813 -0.4268294
0.047249716 -0.0023418062 -0.42570451
0.046227761 -0.0023348506 -0.42457965
0.045250736 -0.0023299754 -0.42382973
0.04425085 -0.0023237434 -0.42282984
0.043139979 -0.0023113501 -0.42070505
0.042063322 -0.0023003519 -0.41883025
0.041019287 -0.0022907469 -0.41720542
0.040054388 -0.0022852789 -0.41633052
0.039152108 -0.0022832574 -0.41608053
0.038250998 -0.0022812516 -0.41583058
0.03737352 -0.0022806318 -0.41583058
0.036496159 -0.0022800269 -0.41583058
0.035608195 -0.002278751 -0.41570559
0.034720864 -0.0022774902 -0.4155806
0.033854529 -0.0022776145 -0.41570559
0.032958016 -0.0022756991 -0.41545561
0.032062646 -0.0022737985 -0.41520563
0.031168433 -0.0022719135 -0.41495568
0.03027536 -0.0022700436 -0.41470569
0.029383421 -0.0022681886 -0.41445571
0.028501226 -0.0022670333 -0.41433072
0.027619641 -0.0022658922 -0.41420576
0.026738662 -0.0022647663 -0.41408077
0.025858283 -0.002263655 -0.41395578
0.024978502 -0.0022625586 -0.41383079
0.024092032 -0.0022607935 -0.41358081
0.023213707 -0.0022597266 -0.41345584
0.022342725 -0.0022593576 -0.41345584
0.021471802 -0.0022590023 -0.41345584
0.020600941 -0.0022586624 -0.41345584
0.019724166 -0.0022576535 -0.41333085
0.018853672 -0.0022573425 -0.41333085
0.017983228 -0.0022570456 -0.41333085
0.017112833 -0.0022567632 -0.41333085
0.01624248 -0.0022564954 -0.41333085
0.015367522 -0.0022555594 -0.41320586
0.014497512 -0.002255321 -0.41320586
0.013631663 -0.0022557783 -0.41333085
0.012761458 -0.002255568 -0.41333085
0.011891285 -0.0022553725 -0.41333085
0.011017807 -0.0022545091 -0.41320586
0.010141809 -0.0022529785 -0.41295588
0.0092640817 -0.0022507808 -0.41258094
0.0083854059 -0.0022479156 -0.41208097
0.0075111333 -0.0022457473 -0.41170603
0.0066364352 -0.0022429116 -0.41120607
0.0057550822 -0.0022366818 -0.41008118
0.0048516365 -0.0022181966 -0.40670654
0.0039218818 -0.0021772322 -0.39920735
0.0030545737 -0.0021580963 -0.39570773
0.0022132266 -0.0021498811 -0.39420789
0.0013795063 -0.0021437251 -0.39308301
0.0005506922 -0.0021382638 -0.39208311
-0.00027383256 -0.002132135 -0.39095822
-0.0010946839 -0.0021280646 -0.3902083
-0.0019130047 -0.0021246895 -0.38958338
-0.0027304632 -0.0021226911 -0.38920841
-0.003546362 -0.0021207063 -0.38883346
-0.0043621045 -0.0021194166 -0.38858348
-0.0051784837 -0.0021188215 -0.38845849
-0.0059943628 -0.0021182406 -0.3883335
-0.0068119359 -0.0021183547 -0.3883335
-0.0076295398 -0.0021184825 -0.3883335
-0.0084526138 -0.0021199873 -0.38858348
-0.0092737954 -0.0021208241 -0.38870847
-0.010098788 -0.002122357 -0.38895845
-0.010924871 -0.002123903 -0.38920841
-0.011755825 -0.0021261452 -0.38958338
-0.01259244 -0.0021290837 -0.39008331
-0.013439803 -0.0021334006 -0.39083326
-0.014294943 -0.0021384151 -0.39170817
-0.015153817 -0.0021434436 -0.39258307
-0.016016437 -0.0021484874 -0.39345798
-0.016888155 -0.0021542285 -0.39445785
-0.017764146 -0.0021599848 -0.39545774
-0.01863854 -0.002165074 -0.39633265
-0.019522833 -0.0021708608 -0.39733255
-0.020424219 -0.0021780296 -0.39858243
-0.021324277 -0.0021845312 -0.39970729
-0.02224995 -0.0021930984 -0.40120715
-0.02316764 -0.0022003159 -0.402457
-0.024113055 -0.0022096003 -0.40408182
-0.024957299 -0.0022093323 -0.40395683
-0.025809094 -0.0022097614 -0.40395683
-0.026726974 -0.0022156762 -0.40495673
-0.027708754 -0.0022263951 -0.40683153
-0.028821405 -0.0022467102 -0.41045615
-0.029868098 -0.0022608899 -0.41295588
-0.030841708 -0.0022689302 -0.41433072
-0.031782959 -0.0022742499 -0.41520563
-0.032619875 -0.0022720546 -0.41470569
-0.033485074 -0.0022719267 -0.4145807
-0.03428771 -0.0022677027 -0.4137058
-0.035118647 -0.0022655467 -0.41320586
-0.036045566 -0.0022695728 -0.41383079
-0.036919512 -0.0022701875 -0.41383079
-0.037850656 -0.0022742457 -0.41445571
-0.038772892 -0.0022776343 -0.41495568
-0.039697375 -0.0022810393 -0.41545561
-0.0405997 -0.0022830877 -0.41570559
-0.041503217 -0.0022851513 -0.41595557
-0.042395201 -0.0022865436 -0.41608053
-0.043287873 -0.0022879515 -0.41620553
-0.044194486 -0.0022900617 -0.41645551
-0.045088779 -0.0022914996 -0.4165805
-0.045983765 -0.0022929532 -0.41670549
-0.046893492 -0.0022951097 -0.41695544
-0.047790132 -0.002296594 -0.41708043
-0.04870205 -0.0022987823 -0.41733041
-0.049630046 -0.0023016743 -0.41770539
-0.050544687 -0.0023038944 -0.41795534
-0.051460568 -0.0023061296 -0.41820532
-0.052393343 -0.0023090711 -0.41858029
-0.053327873 -0.0023120285 -0.41895524
-0.054264192 -0.0023150023 -0.41933021
-0.055185854 -0.0023173026 -0.41958016
-0.056125484 -0.0023203101 -0.41995513
-0.057049926 -0.0023226431 -0.42020512
-0.05797562 -0.0023249916 -0.42045507
-0.058902599 -0.0023273572 -0.42070505
-0.05981309 -0.0023290468 -0.42083004
-0.060724311 -0.0023307519 -0.42095503
-0.061672874 -0.0023338576 -0.42132998
-0.062604688 -0.0023362879 -0.42157996
-0.063518964 -0.0023380413 -0.42170495
-0.064453088 -0.0023405035 -0.42195493
-0.065311097 -0.0023402083 -0.42170495
-0.065952413 -0.0023322937 -0.42008013
-0.066865496 -0.0023341049 -0.42020512
-0.068001054 -0.0023435727 -0.42170495
-0.069367871 -0.0023607083 -0.42457965
-0.070705809 -0.0023764845 -0.42720437
-0.072118014 -0.0023943775 -0.43020403
-0.073649362 -0.0024157825 -0.43382865
-0.075067505 -0.0024330465 -0.43670335
-0.076367661 -0.0024461623 -0.43882811
-0.077545062 -0.0024551244 -0.44020298
-0.078572609 -0.002459228 -0.44070292
-0.079692774 -0.0024661417 -0.44170281
-0.080794707 -0.0024723799 -0.44257772
-0 -0 -0
-0 -0 -0
0 -0 -0
0 -0 -0
0 -0 -0
0.063023798 -0.0034241371 -0.4482021
0.061970424 -0.0034173108 -0.44745219
0.060818158 -0.0034047796 -0.44595236
0.059504643 -0.0033827333 -0.44320264
0.058103863 -0.0033549943 -0.43970302
0.056734331 -0.0033282426 -0.43632838
0.055507168 -0.0033091477 -0.43395364
0.054384556 -0.0032957962 -0.43232882
0.053315371 -0.0032853261 -0.43107894
0.052312419 -0.0032786869 -0.43032902
